# .PCD v0.7 - Point Cloud Data file format
VERSION 0.7
FIELDS x y z rgb
SIZE 4 4 4 4
TYPE F F F F
COUNT 1 1 1 1
WIDTH 966
HEIGHT 1
VIEWPOINT 0 0 0 1 0 0 0
POINTS 966
DATA ascii
1.1951325 -1.8839519 2.8014183e-06 1.4290323e-38
1.2048808 -1.884586 2.8133393e-06 1.4290323e-38
1.2155197 -1.8833177 2.7894973e-06 1.4290323e-38
1.225268 -1.8839519 2.8014183e-06 1.4290323e-38
1.2350233 -1.884586 2.8133393e-06 1.4290323e-38
1.2456484 -1.8833177 2.7894973e-06 1.4290323e-38
1.2554036 -1.8839519 2.8014183e-06 1.4290323e-38
1.2651659 -1.884586 2.8133393e-06 1.4290323e-38
1.2757769 -1.8833177 2.7894973e-06 1.4290323e-38
1.2855392 -1.8839519 2.8014183e-06 1.4290323e-38
1.2953085 -1.884586 2.8133393e-06 1.4290323e-38
1.3059055 -1.8833177 2.7894973e-06 1.4290323e-38
1.3156748 -1.8839519 2.8014183e-06 1.4290323e-38
1.324285 -1.8839519 2.8014183e-06 1.4290323e-38
1.3350477 -1.8839518 2.8014183e-06 1.4290323e-38
1.3458104 -1.8839519 2.8014183e-06 1.4290323e-38
1.3544204 -1.8839519 2.8014183e-06 1.4290323e-38
1.364206 -1.884586 2.8133393e-06 1.4290323e-38
1.3747706 -1.8833177 2.7894973e-06 1.4290323e-38
1.3845562 -1.8839519 2.8014183e-06 1.4290323e-38
1.3943485 -1.884586 2.8133393e-06 1.4290323e-38
-1.3443877 -1.8744704 2.1060307e-06 1.4290323e-38
-1.3336624 -1.8744704 2.1457672e-06 1.4290323e-38
-1.3250823 -1.8744704 2.1457672e-06 1.4290323e-38
-1.3143572 -1.8744704 2.1457672e-06 1.4290323e-38
-1.3036319 -1.8744704 2.1457672e-06 1.4290323e-38
-1.2950518 -1.8744704 2.1457672e-06 1.4290323e-38
-1.2843266 -1.8744704 2.1457672e-06 1.4290323e-38
-1.2736014 -1.8744704 2.1457672e-06 1.4290323e-38
-1.2650213 -1.8744704 2.1457672e-06 1.4290323e-38
-1.2542962 -1.8744704 2.1457672e-06 1.4290323e-38
-1.2435709 -1.8744704 2.1457672e-06 1.4290323e-38
-1.2349908 -1.8744704 2.1457672e-06 1.4290323e-38
-1.2264106 -1.8744704 2.1457672e-06 1.4290323e-38
-1.2156855 -1.8744704 2.1457672e-06 1.4290323e-38
-1.2049603 -1.8744704 2.1457672e-06 1.4290323e-38
-1.1963801 -1.8744704 2.1457672e-06 1.4290323e-38
-1.185655 -1.8744704 2.1457672e-06 1.4290323e-38
-1.1749299 -1.8744704 2.1457672e-06 1.4290323e-38
-1.1663496 -1.8744704 2.1457672e-06 1.4290323e-38
-1.1556245 -1.8744704 2.1457672e-06 1.4290323e-38
-1.1448994 -1.8744704 2.1457672e-06 1.4290323e-38
-1.1363192 -1.8744704 2.1457672e-06 1.4290323e-38
-1.125594 -1.8744704 2.1457672e-06 1.4290323e-38
-1.1148689 -1.8744704 2.1457672e-06 1.4290323e-38
-1.1062887 -1.8744704 2.1457672e-06 1.4290323e-38
-1.0955634 -1.8744704 2.1457672e-06 1.4290323e-38
-1.0848384 -1.8744704 2.1457672e-06 1.4290323e-38
-1.0762582 -1.8744704 2.1457672e-06 1.4290323e-38
-1.065533 -1.8744704 2.1457672e-06 1.4290323e-38
-1.0548078 -1.8744704 2.1457672e-06 1.4290323e-38
-1.0462277 -1.8744704 2.1457672e-06 1.4290323e-38
-1.0355024 -1.8744704 2.1457672e-06 1.4290323e-38
-1.0247773 -1.8744704 2.1457672e-06 1.4290323e-38
-1.0161972 -1.8744704 2.1457672e-06 1.4290323e-38
-1.0054721 -1.8744704 2.1457672e-06 1.4290323e-38
-0.99474674 -1.8744704 2.1457672e-06 1.4290323e-38
-0.98616666 -1.8744704 2.1457672e-06 1.4290323e-38
-0.97544146 -1.8744704 2.1457672e-06 1.4290323e-38
-0.96471632 -1.8744704 2.1457672e-06 1.4290323e-38
-0.95613611 -1.8744704 2.1457672e-06 1.4290323e-38
-0.94541097 -1.8744704 2.1457672e-06 1.4290323e-38
-0.93468577 -1.8744704 2.1457672e-06 1.4290323e-38
-0.92610562 -1.8744704 2.1457672e-06 1.4290323e-38
-0.91538048 -1.8744704 2.1457672e-06 1.4290323e-38
-0.90465528 -1.8744704 2.1457672e-06 1.4290323e-38
-0.89607513 -1.8744704 2.1457672e-06 1.4290323e-38
-0.88534999 -1.8744704 2.1457672e-06 1.4290323e-38
-0.87462479 -1.8744704 2.1457672e-06 1.4290323e-38
-0.86604464 -1.8744704 2.1457672e-06 1.4290323e-38
-0.8553195 -1.8744704 2.1457672e-06 1.4290323e-38
-0.8445943 -1.8744704 2.1457672e-06 1.4290323e-38
-0.83601415 -1.8744704 2.1457672e-06 1.4290323e-38
-0.82528901 -1.8744704 2.1457672e-06 1.4290323e-38
-0.81456375 -1.8744704 2.1457672e-06 1.4290323e-38
-0.80598366 -1.8744705 2.2053719e-06 1.4290323e-38
-0.79525834 -1.8744704 2.2649765e-06 1.4290323e-38
-0.78453326 -1.8744705 2.2649765e-06 1.4290323e-38
-0.77595305 -1.8744705 2.2649765e-06 1.4290323e-38
-0.76522797 -1.8744704 2.2649765e-06 1.4290323e-38
-0.75450277 -1.8744705 2.2649765e-06 1.4290323e-38
-0.74592257 -1.8744705 2.2649765e-06 1.4290323e-38
-0.73519737 -1.8744704 2.2649765e-06 1.4290323e-38
-0.72447222 -1.8744705 2.2649765e-06 1.4290323e-38
-0.71589208 -1.8744705 2.2649765e-06 1.4290323e-38
-0.705167 -1.8744704 2.2649765e-06 1.4290323e-38
-0.69444174 -1.8744705 2.2649765e-06 1.4290323e-38
-0.68586159 -1.8744705 2.2649765e-06 1.4290323e-38
-0.67513639 -1.8744704 2.2649765e-06 1.4290323e-38
-0.66441125 -1.8744705 2.2649765e-06 1.4290323e-38
-0.6558311 -1.8744705 2.2649765e-06 1.4290323e-38
-0.64510596 -1.8744704 2.2649765e-06 1.4290323e-38
-0.63438076 -1.8744705 2.2649765e-06 1.4290323e-38
-0.62580061 -1.8744705 2.2649765e-06 1.4290323e-38
-0.61507541 -1.8744704 2.2649765e-06 1.4290323e-38
-0.60435027 -1.8744705 2.2649765e-06 1.4290323e-38
-0.59577012 -1.8744705 2.2649765e-06 1.4290323e-38
-0.58504492 -1.8744704 2.2649765e-06 1.4290323e-38
-0.57431978 -1.8744705 2.2649765e-06 1.4290323e-38
-0.56573963 -1.8744705 2.2649765e-06 1.4290323e-38
-0.55487186 -1.8740171 0.00040471554 1.0423166e-38
-0.54445606 -1.8760366 0.0014113486 8.3973918e-39
-0.53557265 -1.8750522 0.0022838712 8.3048374e-39
-0.52549934 -1.8745657 0.0032732487 8.2126404e-39
-0.51583236 -1.8739134 0.0042227111 8.2122802e-39
-0.50518894 -1.874831 0.0052681565 8.1200832e-39
-0.49453774 -1.8757535 0.0063143172 8.0275274e-39
-0.48489031 -1.8751028 0.007261896 7.9353318e-39
-0.47484809 -1.8746176 0.0082482696 7.8431348e-39
-0.46601903 -1.873636 0.0091154277 7.7509391e-39
-0.4599815 -1.8761157 0.0097085238 7.750579e-39
0.46603066 -1.8742739 0.0091085909 8.397033e-39
0.47605133 -1.8747579 0.0081242621 8.4892286e-39
0.48486683 -1.875738 0.0072583556 8.4895874e-39
0.49451023 -1.875231 0.006311208 8.4895888e-39
0.50636446 -1.8749681 0.0051467419 8.5817844e-39
0.51520228 -1.8759491 0.0042787194 8.5821445e-39
0.52465254 -1.8732189 0.0033504725 8.6739814e-39
0.53551441 -1.8756826 0.0022835254 8.6743416e-39
0.54558045 -1.876168 0.0012948513 8.7665372e-39
0.55381 -1.8739251 0.00048661232 8.7665386e-39
0.56469375 -1.8744701 2.6226044e-06 1.4290323e-38
0.57541895 -1.87447 2.6226044e-06 1.4290323e-38
0.58399916 -1.87447 2.6226044e-06 1.4290323e-38
0.59472436 -1.8744701 2.6226044e-06 1.4290323e-38
0.60544944 -1.87447 2.6226044e-06 1.4290323e-38
0.61402965 -1.87447 2.6226044e-06 1.4290323e-38
0.62475473 -1.8744701 2.6226044e-06 1.4290323e-38
0.63547993 -1.87447 2.6226044e-06 1.4290323e-38
0.64406013 -1.87447 2.6226044e-06 1.4290323e-38
0.65478528 -1.8744701 2.6226044e-06 1.4290323e-38
0.66551042 -1.87447 2.6226044e-06 1.4290323e-38
0.67409062 -1.87447 2.6226044e-06 1.4290323e-38
0.6848157 -1.8744701 2.6226044e-06 1.4290323e-38
0.6955409 -1.87447 2.6226044e-06 1.4290323e-38
0.70412111 -1.87447 2.6226044e-06 1.4290323e-38
0.71484619 -1.8744701 2.6226044e-06 1.4290323e-38
0.72557139 -1.87447 2.6226044e-06 1.4290323e-38
0.7341516 -1.87447 2.6226044e-06 1.4290323e-38
0.74487668 -1.8744701 2.6226044e-06 1.4290323e-38
0.75560188 -1.87447 2.6226044e-06 1.4290323e-38
0.76418209 -1.87447 2.6226044e-06 1.4290323e-38
0.77490729 -1.8744701 2.6226044e-06 1.4290323e-38
0.78563237 -1.87447 2.6226044e-06 1.4290323e-38
0.79421252 -1.87447 2.6226044e-06 1.4290323e-38
0.80493766 -1.8744701 2.6226044e-06 1.4290323e-38
0.81566286 -1.87447 2.6226044e-06 1.4290323e-38
0.82424301 -1.87447 2.6226044e-06 1.4290323e-38
0.83496827 -1.8744701 2.6226044e-06 1.4290323e-38
0.84569335 -1.87447 2.6226044e-06 1.4290323e-38
0.8542735 -1.87447 2.6226044e-06 1.4290323e-38
0.86499864 -1.8744701 2.6226044e-06 1.4290323e-38
0.87572384 -1.87447 2.6226044e-06 1.4290323e-38
0.88430399 -1.87447 2.6226044e-06 1.4290323e-38
0.89502913 -1.8744701 2.6226044e-06 1.4290323e-38
0.90575433 -1.87447 2.6226044e-06 1.4290323e-38
0.91433448 -1.87447 2.6226044e-06 1.4290323e-38
0.92505962 -1.8744701 2.6226044e-06 1.4290323e-38
0.93578482 -1.87447 2.6226044e-06 1.4290323e-38
0.94436496 -1.87447 2.6226044e-06 1.4290323e-38
0.95509022 -1.8744701 2.6226044e-06 1.4290323e-38
0.96581531 -1.87447 2.6226044e-06 1.4290323e-38
0.97439545 -1.87447 2.6226044e-06 1.4290323e-38
0.98512059 -1.8744701 2.6226044e-06 1.4290323e-38
0.99584579 -1.87447 2.6226044e-06 1.4290323e-38
1.0044259 -1.87447 2.6226044e-06 1.4290323e-38
1.015151 -1.8744701 2.6226044e-06 1.4290323e-38
1.0258763 -1.87447 2.6226044e-06 1.4290323e-38
1.0344564 -1.87447 2.6226044e-06 1.4290323e-38
1.0451815 -1.8744701 2.6226044e-06 1.4290323e-38
1.0559068 -1.87447 2.6226044e-06 1.4290323e-38
1.0644869 -1.87447 2.6226044e-06 1.4290323e-38
1.075212 -1.8744701 2.6226044e-06 1.4290323e-38
1.0859373 -1.87447 2.6226044e-06 1.4290323e-38
1.0945174 -1.87447 2.6226044e-06 1.4290323e-38
1.1052425 -1.8744701 2.6226044e-06 1.4290323e-38
1.1159678 -1.87447 2.6226044e-06 1.4290323e-38
1.1245478 -1.87447 2.6226044e-06 1.4290323e-38
1.1352729 -1.8744698 2.7020772e-06 1.4290323e-38
1.145998 -1.8744698 2.7418137e-06 1.4290323e-38
1.1545782 -1.8744698 2.7418137e-06 1.4290323e-38
1.1653033 -1.8744698 2.7418137e-06 1.4290323e-38
1.1760285 -1.8744698 2.7418137e-06 1.4290323e-38
1.1846087 -1.8744698 2.7418137e-06 1.4290323e-38
1.1953338 -1.8744698 2.7418137e-06 1.4290323e-38
1.206059 -1.8744698 2.7418137e-06 1.4290323e-38
1.2146392 -1.8744698 2.7418137e-06 1.4290323e-38
1.2253643 -1.8744698 2.7418137e-06 1.4290323e-38
1.2360895 -1.8744698 2.7418137e-06 1.4290323e-38
1.2446697 -1.8744698 2.7418137e-06 1.4290323e-38
1.2553948 -1.8744698 2.7418137e-06 1.4290323e-38
1.26612 -1.8744698 2.7418137e-06 1.4290323e-38
1.2747002 -1.8744698 2.7418137e-06 1.4290323e-38
1.2854253 -1.8744698 2.7418137e-06 1.4290323e-38
1.2961504 -1.8744698 2.7418137e-06 1.4290323e-38
1.3047307 -1.8744698 2.7418137e-06 1.4290323e-38
1.3154558 -1.8744698 2.7418137e-06 1.4290323e-38
1.3261809 -1.8744698 2.7418137e-06 1.4290323e-38
1.3347611 -1.8744698 2.7418137e-06 1.4290323e-38
1.3454863 -1.8744698 2.7418137e-06 1.4290323e-38
1.3562114 -1.8744698 2.7418137e-06 1.4290323e-38
1.3647916 -1.8744698 2.7418137e-06 1.4290323e-38
1.3755168 -1.8744698 2.7418137e-06 1.4290323e-38
1.3862419 -1.8744698 2.7418137e-06 1.4290323e-38
1.3926771 -1.8744698 2.7418137e-06 1.4290323e-38
-1.3430185 -1.866104 2.0265579e-06 1.4290323e-38
-1.3353652 -1.8650619 2.0265579e-06 1.4290323e-38
-1.325649 -1.8644365 2.0265579e-06 1.4290323e-38
-1.3151553 -1.8656871 2.0265579e-06 1.4290323e-38
-1.305439 -1.8650619 2.0265579e-06 1.4290323e-38
-1.2957296 -1.8644365 2.0742416e-06 1.4290323e-38
-1.2852221 -1.8656871 2.1219253e-06 1.4290323e-38
-1.2755127 -1.8650618 2.1457672e-06 1.4290323e-38
-1.2658103 -1.8644364 2.1696092e-06 1.4290323e-38
-1.255289 -1.8656871 2.1219253e-06 1.4290323e-38
-1.2455865 -1.8650618 2.1457672e-06 1.4290323e-38
-1.235891 -1.8644364 2.1696092e-06 1.4290323e-38
-1.2253559 -1.8656871 2.1219253e-06 1.4290323e-38
-1.2156603 -1.8650618 2.1457672e-06 1.4290323e-38
-1.2059717 -1.8644364 2.1696092e-06 1.4290323e-38
-1.1954226 -1.8656871 2.1219253e-06 1.4290323e-38
-1.1846007 -1.8644364 2.2172928e-06 1.4290323e-38
-1.1740417 -1.8656868 2.2649765e-06 1.4290323e-38
-1.1643581 -1.8650616 2.2649765e-06 1.4290323e-38
-1.1546814 -1.8644364 2.2649765e-06 1.4290323e-38
-1.1441085 -1.8656868 2.2649765e-06 1.4290323e-38
-1.134432 -1.8650616 2.2649765e-06 1.4290323e-38
-1.1247623 -1.8644364 2.2649765e-06 1.4290323e-38
-1.1141754 -1.8656868 2.2649765e-06 1.4290323e-38
-1.1045057 -1.8650616 2.2649765e-06 1.4290323e-38
-1.0948429 -1.8644364 2.2649765e-06 1.4290323e-38
-1.0842423 -1.8656868 2.2649765e-06 1.4290323e-38
-1.0745795 -1.8650616 2.2649765e-06 1.4290323e-38
-1.0649236 -1.8644364 2.2649765e-06 1.4290323e-38
-1.0543092 -1.865687 2.2649765e-06 1.4290323e-38
-1.0446533 -1.8650616 2.2649765e-06 1.4290323e-38
-1.0350044 -1.8644364 2.2649765e-06 1.4290323e-38
-1.0243762 -1.8656868 2.2888185e-06 1.4290323e-38
-1.0147271 -1.8650615 2.3245811e-06 1.4290323e-38
-1.005085 -1.8644361 2.3365021e-06 1.4290323e-38
-0.99444282 -1.8656868 2.3126602e-06 1.4290323e-38
-0.98480076 -1.8650615 2.3245811e-06 1.4290323e-38
-0.97516567 -1.8644361 2.3365021e-06 1.4290323e-38
-0.96450967 -1.8656868 2.3126602e-06 1.4290323e-38
-0.95487458 -1.8650615 2.3245811e-06 1.4290323e-38
-0.9452464 -1.8644361 2.3365021e-06 1.4290323e-38
-0.93457651 -1.8656868 2.3126602e-06 1.4290323e-38
-0.92494833 -1.8650615 2.3245811e-06 1.4290323e-38
-0.91532707 -1.8644361 2.3603438e-06 1.4290323e-38
-0.90464324 -1.8656867 2.3841858e-06 1.4290323e-38
-0.89502209 -1.8650613 2.3841858e-06 1.4290323e-38
-0.88540781 -1.8644359 2.3841858e-06 1.4290323e-38
-0.8747102 -1.8656867 2.3841858e-06 1.4290323e-38
-0.86509585 -1.8650614 2.3841858e-06 1.4290323e-38
-0.85548848 -1.8644361 2.3841858e-06 1.4290323e-38
-0.84477699 -1.8656868 2.3841858e-06 1.4290323e-38
-0.83516967 -1.8650613 2.3841858e-06 1.4290323e-38
-0.82556927 -1.8644361 2.3841858e-06 1.4290323e-38
-0.81484395 -1.8656867 2.3841858e-06 1.4290323e-38
-0.80419827 -1.8644359 2.3841858e-06 1.4290323e-38
-0.79455805 -1.8650614 2.3841858e-06 1.4290323e-38
-0.78491068 -1.8656868 2.3841858e-06 1.4290323e-38
-0.774279 -1.8644359 2.3841858e-06 1.4290323e-38
-0.76463181 -1.8650614 2.3841858e-06 1.4290323e-38
-0.75497764 -1.8656867 2.3841858e-06 1.4290323e-38
-0.74435973 -1.8644359 2.3841858e-06 1.4290323e-38
-0.73470557 -1.8650613 2.3841858e-06 1.4290323e-38
-0.72504449 -1.8656867 2.3841858e-06 1.4290323e-38
-0.71444046 -1.8644361 2.3841858e-06 1.4290323e-38
-0.70477939 -1.8650613 2.3841858e-06 1.4290323e-38
-0.69511127 -1.8656868 2.3841858e-06 1.4290323e-38
-0.6845212 -1.8644359 2.3841858e-06 1.4290323e-38
-0.67485321 -1.8650613 2.3841858e-06 1.4290323e-38
-0.66517818 -1.8656868 2.3841858e-06 1.4290323e-38
-0.65460193 -1.8644359 2.3841858e-06 1.4290323e-38
-0.64492697 -1.8650614 2.3841858e-06 1.4290323e-38
-0.63524503 -1.8656868 2.3841858e-06 1.4290323e-38
-0.62468261 -1.8644359 2.3841858e-06 1.4290323e-38
-0.61500072 -1.8650614 2.3841858e-06 1.4290323e-38
-0.60531193 -1.8656867 2.3841858e-06 1.4290323e-38
-0.5947634 -1.8644359 2.3841858e-06 1.4290323e-38
-0.58507454 -1.8650614 2.3841858e-06 1.4290323e-38
-0.57537878 -1.8656867 2.3841858e-06 1.4290323e-38
-0.56484407 -1.8644361 2.3841858e-06 1.4290323e-38
-0.55501622 -1.8646451 0.00037401915 8.4895888e-39
-0.54497039 -1.8641641 0.0013606787 8.397033e-39
-0.53356498 -1.865406 0.0024810433 8.3048374e-39
-0.52472419 -1.8644317 0.003349185 8.3044759e-39
-0.51432753 -1.8664179 0.0043705702 8.1204433e-39
-0.50448978 -1.8647057 0.0053367615 8.1197245e-39
-0.49447483 -1.8642261 0.0063203573 8.0275274e-39
-0.4866012 -1.8643988 0.0070937872 7.9353318e-39
-0.47526255 -1.8652295 0.0082074404 7.8431348e-39
-0.46426514 -1.8640131 0.0092876554 7.7509377e-39
-0.45824936 -1.8664843 0.009878397 7.750579e-39
0.45907491 -1.8634449 0.0097919703 8.3970316e-39
0.46380654 -1.8660598 0.0093272924 8.397033e-39
0.47442287 -1.8651428 0.0082844496 8.3973932e-39
0.48622337 -1.8648843 0.0071254075 8.4892286e-39
0.49583179 -1.8643821 0.0061815977 8.4895888e-39
0.50462753 -1.8653535 0.0053176582 8.5817844e-39
0.51463544 -1.865832 0.0043345927 8.5817858e-39
0.52605391 -1.8645847 0.0032129884 8.6739814e-39
0.53487182 -1.8655566 0.0023469925 8.6743416e-39
0.54527915 -1.8635795 0.0013246536 8.7665372e-39
0.55511701 -1.8652785 0.0003665924 9.8710799e-39
0.56494689 -1.8650612 2.7418137e-06 1.4290323e-38
0.57465053 -1.8644358 2.7418137e-06 1.4290323e-38
0.58516932 -1.8656864 2.7418137e-06 1.4290323e-38
0.59487307 -1.865061 2.7418137e-06 1.4290323e-38
0.60456979 -1.8644358 2.7418137e-06 1.4290323e-38
0.61510247 -1.8656864 2.7418137e-06 1.4290323e-38
0.62479931 -1.8650612 2.7418137e-06 1.4290323e-38
0.63448906 -1.8644358 2.7418137e-06 1.4290323e-38
0.64503562 -1.8656864 2.7418137e-06 1.4290323e-38
0.65472549 -1.865061 2.7418137e-06 1.4290323e-38
0.66440833 -1.8644358 2.7418137e-06 1.4290323e-38
0.67496878 -1.8656864 2.7418137e-06 1.4290323e-38
0.68465173 -1.8650612 2.7418137e-06 1.4290323e-38
0.69432765 -1.8644358 2.7418137e-06 1.4290323e-38
0.70490187 -1.8656864 2.7418137e-06 1.4290323e-38
0.71457791 -1.865061 2.7418137e-06 1.4290323e-38
0.72424692 -1.8644358 2.7418137e-06 1.4290323e-38
0.73483503 -1.8656864 2.7418137e-06 1.4290323e-38
0.74450403 -1.865061 2.771616e-06 1.4290323e-38
0.75416613 -1.8644356 2.7894973e-06 1.4290323e-38
0.76476818 -1.8656862 2.8133393e-06 1.4290323e-38
0.77553701 -1.8644356 2.7894973e-06 1.4290323e-38
0.78511572 -1.8650609 2.8014183e-06 1.4290323e-38
0.79470128 -1.8656862 2.8133393e-06 1.4290323e-38
0.80545628 -1.8644358 2.7894973e-06 1.4290323e-38
0.8150419 -1.8650609 2.8014183e-06 1.4290323e-38
0.82463443 -1.8656862 2.8133393e-06 1.4290323e-38
0.83537561 -1.8644358 2.7894973e-06 1.4290323e-38
0.84496808 -1.8650609 2.8014183e-06 1.4290323e-38
0.85456753 -1.8656864 2.8133393e-06 1.4290323e-38
0.86529493 -1.8644358 2.7894973e-06 1.4290323e-38
0.87489432 -1.8650609 2.8014183e-06 1.4290323e-38
0.88450068 -1.8656862 2.8133393e-06 1.4290323e-38
0.8952142 -1.8644358 2.7894973e-06 1.4290323e-38
0.9048205 -1.865061 2.8014183e-06 1.4290323e-38
0.91443378 -1.8656864 2.8133393e-06 1.4290323e-38
0.92513341 -1.8644358 2.7894973e-06 1.4290323e-38
0.93474668 -1.8650609 2.8014183e-06 1.4290323e-38
0.94436705 -1.8656862 2.8133393e-06 1.4290323e-38
0.95505267 -1.8644356 2.7894973e-06 1.4290323e-38
0.96467292 -1.8650609 2.8014183e-06 1.4290323e-38
0.97430003 -1.8656862 2.8133393e-06 1.4290323e-38
0.984972 -1.8644358 2.7894973e-06 1.4290323e-38
0.9945991 -1.865061 2.8014183e-06 1.4290323e-38
1.0042331 -1.8656862 2.8133393e-06 1.4290323e-38
1.0148913 -1.8644356 2.7894973e-06 1.4290323e-38
1.025614 -1.8656862 2.8133393e-06 1.4290323e-38
1.0352156 -1.8650609 2.8014183e-06 1.4290323e-38
1.0448105 -1.8644356 2.7894973e-06 1.4290323e-38
1.055547 -1.8656864 2.8133393e-06 1.4290323e-38
1.0651419 -1.8650609 2.8014183e-06 1.4290323e-38
1.0747297 -1.8644358 2.7894973e-06 1.4290323e-38
1.0854803 -1.8656862 2.8133393e-06 1.4290323e-38
1.0950681 -1.865061 2.8014183e-06 1.4290323e-38
1.1046489 -1.8644356 2.7894973e-06 1.4290323e-38
1.1154133 -1.8656862 2.8133393e-06 1.4290323e-38
1.1249943 -1.8650609 2.8014183e-06 1.4290323e-38
1.1345682 -1.8644358 2.7894973e-06 1.4290323e-38
1.1453464 -1.8656864 2.8133393e-06 1.4290323e-38
1.1549205 -1.865061 2.8014183e-06 1.4290323e-38
1.1644876 -1.8644356 2.7894973e-06 1.4290323e-38
1.1752795 -1.8656864 2.8133393e-06 1.4290323e-38
1.1858585 -1.8644356 2.7894973e-06 1.4290323e-38
1.1955321 -1.8650609 2.8014183e-06 1.4290323e-38
1.2052128 -1.8656862 2.8133393e-06 1.4290323e-38
1.2157778 -1.8644356 2.7894973e-06 1.4290323e-38
1.2254584 -1.8650609 2.8014183e-06 1.4290323e-38
1.2351458 -1.8656862 2.8133393e-06 1.4290323e-38
1.245697 -1.8644358 2.7894973e-06 1.4290323e-38
1.2553846 -1.865061 2.8014183e-06 1.4290323e-38
1.265079 -1.8656862 2.837181e-06 1.4290323e-38
1.2756163 -1.8644356 2.8610229e-06 1.4290323e-38
1.2853107 -1.8650609 2.8610229e-06 1.4290323e-38
1.2950121 -1.8656862 2.8610229e-06 1.4290323e-38
1.3055356 -1.8644356 2.8610229e-06 1.4290323e-38
1.3152368 -1.8650609 2.8610229e-06 1.4290323e-38
1.3249452 -1.8656862 2.8610229e-06 1.4290323e-38
1.3354547 -1.8644356 2.8610229e-06 1.4290323e-38
1.3451631 -1.8650608 2.8610229e-06 1.4290323e-38
1.3548783 -1.8656862 2.8610229e-06 1.4290323e-38
1.365374 -1.8644356 2.8610229e-06 1.4290323e-38
1.3750893 -1.8650609 2.8610229e-06 1.4290323e-38
1.3848116 -1.8656862 2.8610229e-06 1.4290323e-38
-1.3349272 -1.855711 2.0265579e-06 1.4290323e-38
-1.3242762 -1.855711 2.0265579e-06 1.4290323e-38
-1.3157556 -1.855711 2.0265579e-06 1.4290323e-38
-1.3051046 -1.855711 2.0265579e-06 1.4290323e-38
-1.2944536 -1.855711 2.0265579e-06 1.4290323e-38
-1.285933 -1.855711 2.0265579e-06 1.4290323e-38
-1.275282 -1.855711 2.0265579e-06 1.4290323e-38
-1.264631 -1.855711 2.0265579e-06 1.4290323e-38
-1.2561104 -1.855711 2.0265579e-06 1.4290323e-38
-1.2454594 -1.855711 2.0265579e-06 1.4290323e-38
-1.2348086 -1.855711 2.0265579e-06 1.4290323e-38
-1.2262878 -1.855711 2.0265579e-06 1.4290323e-38
-1.2156368 -1.855711 2.0265579e-06 1.4290323e-38
-1.204986 -1.855711 2.0265579e-06 1.4290323e-38
-1.1943351 -1.855711 2.0265579e-06 1.4290323e-38
-1.1836841 -1.855711 2.0265579e-06 1.4290323e-38
-1.1751634 -1.855711 2.0265579e-06 1.4290323e-38
-1.1645125 -1.855711 2.0265579e-06 1.4290323e-38
-1.1538615 -1.855711 2.0265579e-06 1.4290323e-38
-1.1453408 -1.855711 2.0265579e-06 1.4290323e-38
-1.1346899 -1.855711 2.0265579e-06 1.4290323e-38
-1.1240389 -1.8557107 2.2649765e-06 1.4290323e-38
-1.1155181 -1.8557107 2.2649765e-06 1.4290323e-38
-1.1048671 -1.8557106 2.2649765e-06 1.4290323e-38
-1.0942163 -1.8557107 2.2649765e-06 1.4290323e-38
-1.0856955 -1.8557107 2.2649765e-06 1.4290323e-38
-1.0750446 -1.8557106 2.2649765e-06 1.4290323e-38
-1.0643938 -1.8557107 2.2649765e-06 1.4290323e-38
-1.0558729 -1.8557107 2.2649765e-06 1.4290323e-38
-1.045222 -1.8557106 2.2649765e-06 1.4290323e-38
-1.0345712 -1.8557107 2.2649765e-06 1.4290323e-38
-1.0260503 -1.8557107 2.2649765e-06 1.4290323e-38
-1.0153996 -1.8557106 2.2649765e-06 1.4290323e-38
-1.0047486 -1.8557107 2.2649765e-06 1.4290323e-38
-0.9962278 -1.8557107 2.2649765e-06 1.4290323e-38
-0.98557687 -1.8557106 2.2649765e-06 1.4290323e-38
-0.97492599 -1.8557107 2.2649765e-06 1.4290323e-38
-0.96427506 -1.8557106 2.2649765e-06 1.4290323e-38
-0.95362413 -1.8557107 2.2649765e-06 1.4290323e-38
-0.94510341 -1.8557107 2.2649765e-06 1.4290323e-38
-0.93445253 -1.8557106 2.2649765e-06 1.4290323e-38
-0.92380154 -1.8557107 2.2649765e-06 1.4290323e-38
-0.91528082 -1.8557107 2.2649765e-06 1.4290323e-38
-0.90462989 -1.8557106 2.2649765e-06 1.4290323e-38
-0.89397895 -1.8557107 2.2649765e-06 1.4290323e-38
-0.88545823 -1.8557107 2.2649765e-06 1.4290323e-38
-0.87480736 -1.8557106 2.2649765e-06 1.4290323e-38
-0.86415637 -1.8557107 2.2649765e-06 1.4290323e-38
-0.85563552 -1.8557105 2.3841858e-06 1.4290323e-38
-0.84498471 -1.8557105 2.3841858e-06 1.4290323e-38
-0.83433378 -1.8557105 2.3841858e-06 1.4290323e-38
-0.82581306 -1.8557105 2.3841858e-06 1.4290323e-38
-0.81516212 -1.8557105 2.3841858e-06 1.4290323e-38
-0.80451119 -1.8557105 2.3841858e-06 1.4290323e-38
-0.79599047 -1.8557105 2.3841858e-06 1.4290323e-38
-0.78533953 -1.8557105 2.3841858e-06 1.4290323e-38
-0.7746886 -1.8557105 2.3841858e-06 1.4290323e-38
-0.76616788 -1.8557105 2.3841858e-06 1.4290323e-38
-0.75551701 -1.8557105 2.3841858e-06 1.4290323e-38
-0.74486601 -1.8557105 2.3841858e-06 1.4290323e-38
-0.73634529 -1.8557105 2.3841858e-06 1.4290323e-38
-0.72569436 -1.8557105 2.3841858e-06 1.4290323e-38
-0.71504343 -1.8557105 2.3841858e-06 1.4290323e-38
-0.70439261 -1.8557105 2.3841858e-06 1.4290323e-38
-0.69374168 -1.8557105 2.3841858e-06 1.4290323e-38
-0.6852209 -1.8557105 2.3841858e-06 1.4290323e-38
-0.6745699 -1.8557105 2.3841858e-06 1.4290323e-38
-0.66391909 -1.8557105 2.3841858e-06 1.4290323e-38
-0.65539837 -1.8557105 2.3841858e-06 1.4290323e-38
-0.64474744 -1.8557105 2.3841858e-06 1.4290323e-38
-0.6340965 -1.8557105 2.3841858e-06 1.4290323e-38
-0.62557578 -1.8557105 2.3841858e-06 1.4290323e-38
-0.61492485 -1.8557105 2.3841858e-06 1.4290323e-38
-0.60427392 -1.8557105 2.3841858e-06 1.4290323e-38
-0.59575319 -1.8557105 2.3841858e-06 1.4290323e-38
-0.5851022 -1.8557104 2.5033951e-06 1.4290323e-38
-0.57445133 -1.8557104 2.5033951e-06 1.4290323e-38
-0.5659306 -1.8557104 2.5033951e-06 1.4290323e-38
-0.55514377 -1.8552833 0.00038572153 1.0423166e-38
-0.54412496 -1.8541038 0.0014436245 8.3973918e-39
-0.53479058 -1.8568112 0.0023604869 8.3048374e-39
-0.52496397 -1.8551118 0.0033256114 8.2126404e-39
-0.51515651 -1.8534157 0.0042888643 8.1204447e-39
-0.50611824 -1.8540794 0.0051766634 8.1200832e-39
-0.49482021 -1.8549062 0.0062863827 8.0275274e-39
-0.48351815 -1.8557396 0.00739642 7.9353318e-39
-0.47567463 -1.8559139 0.0081669092 7.8431348e-39
-0.46570697 -1.8554386 0.0091459276 7.7509391e-39
-0.45975995 -1.8510547 0.0097299814 7.750579e-39
0.45751569 -1.8539214 0.0099452734 8.3970316e-39
0.46406597 -1.8546423 0.0093018115 8.397033e-39
0.47499475 -1.8558451 0.0082283812 8.3973918e-39
0.48502186 -1.8559108 0.0072435141 8.4895888e-39
0.4941383 -1.8548374 0.0063480139 8.4895888e-39
0.50590098 -1.8545781 0.005192697 8.5817844e-39
0.51547652 -1.8540777 0.0042521358 8.5821445e-39
0.52425253 -1.8550401 0.0033901334 8.6739814e-39
0.53423345 -1.8555132 0.002409792 8.6743416e-39
0.54382211 -1.8561493 0.0014679432 8.7661771e-39
0.55440617 -1.8552356 0.00042831898 8.7665386e-39
0.56519669 -1.8557101 2.7418137e-06 1.4290323e-38
0.57584763 -1.8557101 2.7418137e-06 1.4290323e-38
0.58436835 -1.8557101 2.7418137e-06 1.4290323e-38
0.59501928 -1.8557101 2.7418137e-06 1.4290323e-38
0.60567021 -1.8557101 2.7418137e-06 1.4290323e-38
0.61419094 -1.8557101 2.7418137e-06 1.4290323e-38
0.62484187 -1.8557101 2.7418137e-06 1.4290323e-38
0.63549268 -1.8557101 2.7418137e-06 1.4290323e-38
0.64401346 -1.8557101 2.7418137e-06 1.4290323e-38
0.65466434 -1.8557101 2.7418137e-06 1.4290323e-38
0.66531527 -1.8557101 2.7418137e-06 1.4290323e-38
0.67383599 -1.8557101 2.7418137e-06 1.4290323e-38
0.68448687 -1.8557101 2.7418137e-06 1.4290323e-38
0.69513786 -1.8557101 2.7418137e-06 1.4290323e-38
0.70365858 -1.8557101 2.7418137e-06 1.4290323e-38
0.71430951 -1.8557101 2.7418137e-06 1.4290323e-38
0.72496045 -1.8557101 2.7418137e-06 1.4290323e-38
0.73561138 -1.8557101 2.7418137e-06 1.4290323e-38
0.74626219 -1.8557101 2.7418137e-06 1.4290323e-38
0.75478303 -1.8557101 2.7418137e-06 1.4290323e-38
0.76543397 -1.8557101 2.7418137e-06 1.4290323e-38
0.77608478 -1.8557101 2.7418137e-06 1.4290323e-38
0.7846055 -1.8557101 2.7418137e-06 1.4290323e-38
0.79525644 -1.8557101 2.7418137e-06 1.4290323e-38
0.80590737 -1.8557101 2.7418137e-06 1.4290323e-38
0.81442809 -1.8557101 2.7418137e-06 1.4290323e-38
0.82507896 -1.8557101 2.7418137e-06 1.4290323e-38
0.83572996 -1.8557101 2.7418137e-06 1.4290323e-38
0.84425068 -1.8557101 2.7418137e-06 1.4290323e-38
0.85490161 -1.8557101 2.7418137e-06 1.4290323e-38
0.86555254 -1.8557101 2.7418137e-06 1.4290323e-38
0.87407315 -1.85571 2.8014183e-06 1.4290323e-38
0.88472408 -1.8557099 2.8610229e-06 1.4290323e-38
0.89537501 -1.8557099 2.8610229e-06 1.4290323e-38
0.90389574 -1.8557099 2.8610229e-06 1.4290323e-38
0.91454667 -1.8557099 2.8610229e-06 1.4290323e-38
0.92519748 -1.8557099 2.8610229e-06 1.4290323e-38
0.93371826 -1.8557099 2.8610229e-06 1.4290323e-38
0.94436926 -1.8557099 2.8610229e-06 1.4290323e-38
0.95502007 -1.8557099 2.8610229e-06 1.4290323e-38
0.96567106 -1.8557099 2.8610229e-06 1.4290323e-38
0.97632194 -1.8557099 2.8610229e-06 1.4290323e-38
0.98484266 -1.8557099 2.8610229e-06 1.4290323e-38
0.99549359 -1.8557099 2.8610229e-06 1.4290323e-38
1.0061445 -1.8557099 2.8610229e-06 1.4290323e-38
1.0146651 -1.8557099 2.8610229e-06 1.4290323e-38
1.0253161 -1.8557099 2.8610229e-06 1.4290323e-38
1.035967 -1.8557099 2.8610229e-06 1.4290323e-38
1.0444877 -1.8557099 2.8610229e-06 1.4290323e-38
1.0551387 -1.8557099 2.8610229e-06 1.4290323e-38
1.0657895 -1.8557099 2.8610229e-06 1.4290323e-38
1.0743103 -1.8557099 2.8610229e-06 1.4290323e-38
1.0849613 -1.8557099 2.8610229e-06 1.4290323e-38
1.095612 -1.8557099 2.8610229e-06 1.4290323e-38
1.1041329 -1.8557099 2.8610229e-06 1.4290323e-38
1.1147836 -1.8557099 2.8610229e-06 1.4290323e-38
1.1254346 -1.8557099 2.8610229e-06 1.4290323e-38
1.1339555 -1.8557099 2.8610229e-06 1.4290323e-38
1.1446062 -1.8557099 2.8610229e-06 1.4290323e-38
1.1552572 -1.8557099 2.8610229e-06 1.4290323e-38
1.1637779 -1.8557099 2.8610229e-06 1.4290323e-38
1.1744289 -1.8557099 2.8610229e-06 1.4290323e-38
1.1850798 -1.8557099 2.8610229e-06 1.4290323e-38
1.1957307 -1.8557099 2.8610229e-06 1.4290323e-38
1.2063816 -1.8557099 2.8610229e-06 1.4290323e-38
1.2149024 -1.8557099 2.8610229e-06 1.4290323e-38
1.2255532 -1.8557099 2.8610229e-06 1.4290323e-38
1.2362041 -1.8557099 2.8610229e-06 1.4290323e-38
1.2447249 -1.8557099 2.8610229e-06 1.4290323e-38
1.2553757 -1.8557099 2.8610229e-06 1.4290323e-38
1.2660267 -1.8557099 2.8610229e-06 1.4290323e-38
1.2745475 -1.8557099 2.8610229e-06 1.4290323e-38
1.2851983 -1.8557099 2.8610229e-06 1.4290323e-38
1.2958493 -1.8557099 2.8610229e-06 1.4290323e-38
1.3043699 -1.8557099 2.8610229e-06 1.4290323e-38
1.3150209 -1.8557099 2.8610229e-06 1.4290323e-38
1.3256719 -1.8557099 2.8610229e-06 1.4290323e-38
1.3341925 -1.8557099 2.8610229e-06 1.4290323e-38
1.3448435 -1.8557099 2.8610229e-06 1.4290323e-38
1.3554944 -1.8557099 2.8610229e-06 1.4290323e-38
1.3640151 -1.8557099 2.8610229e-06 1.4290323e-38
1.3746661 -1.8557099 2.8610229e-06 1.4290323e-38
1.3831868 -1.8557099 2.8610229e-06 1.4290323e-38
-1.3335966 -1.8474594 2.0265579e-06 1.4290323e-38
-1.3248419 -1.8458147 2.0265579e-06 1.4290323e-38
-1.3144201 -1.8470482 2.0265579e-06 1.4290323e-38
-1.3047712 -1.8464315 2.0265579e-06 1.4290323e-38
-1.2951289 -1.8458149 2.0265579e-06 1.4290323e-38
-1.2846937 -1.8470482 2.0265579e-06 1.4290323e-38
-1.2750515 -1.8464316 2.0265579e-06 1.4290323e-38
-1.265416 -1.8458149 2.0265579e-06 1.4290323e-38
-1.2549671 -1.8470482 2.0265579e-06 1.4290323e-38
-1.2453318 -1.8464316 2.0265579e-06 1.4290323e-38
-1.2357031 -1.8458147 2.0503999e-06 1.4290323e-38
-1.2252405 -1.8470482 2.0980835e-06 1.4290323e-38
-1.2156119 -1.8464315 2.0861626e-06 1.4290323e-38
-1.2049978 -1.8464316 2.0861626e-06 1.4290323e-38
-1.1943836 -1.8464315 2.0861626e-06 1.4290323e-38
-1.1847667 -1.8458149 2.0742416e-06 1.4290323e-38
-1.1742805 -1.8470482 2.0980835e-06 1.4290323e-38
-1.1646638 -1.8464315 2.0861626e-06 1.4290323e-38
-1.1550539 -1.8458147 2.0742416e-06 1.4290323e-38
-1.1445541 -1.8470482 2.0980835e-06 1.4290323e-38
-1.1349441 -1.8464315 2.0861626e-06 1.4290323e-38
-1.1253411 -1.8458147 2.0742416e-06 1.4290323e-38
-1.1148275 -1.8470482 2.0980835e-06 1.4290323e-38
-1.1052244 -1.8464315 2.0861626e-06 1.4290323e-38
-1.095628 -1.8458147 2.0742416e-06 1.4290323e-38
-1.085101 -1.8470482 2.0980835e-06 1.4290323e-38
-1.0744045 -1.8458147 2.1696092e-06 1.4290323e-38
-1.0648929 -1.8464313 2.2053719e-06 1.4290323e-38
-1.0553744 -1.847048 2.1934509e-06 1.4290323e-38
-1.0446917 -1.8458145 2.2172928e-06 1.4290323e-38
-1.0341411 -1.847048 2.1934509e-06 1.4290323e-38
-1.0245565 -1.8464313 2.2053719e-06 1.4290323e-38
-1.0149788 -1.8458145 2.2172928e-06 1.4290323e-38
-1.0044146 -1.847048 2.1934509e-06 1.4290323e-38
-0.99483669 -1.8464313 2.2053719e-06 1.4290323e-38
-0.98526573 -1.8458145 2.2172928e-06 1.4290323e-38
-0.97468793 -1.847048 2.1934509e-06 1.4290323e-38
-0.96511698 -1.8464313 2.2053719e-06 1.4290323e-38
-0.95555288 -1.8458145 2.2172928e-06 1.4290323e-38
-0.94496137 -1.847048 2.1934509e-06 1.4290323e-38
-0.93432939 -1.8458145 2.2172928e-06 1.4290323e-38
-0.92478549 -1.8464313 2.2053719e-06 1.4290323e-38
-0.91523474 -1.847048 2.1934509e-06 1.4290323e-38
-0.90461648 -1.8458145 2.2172928e-06 1.4290323e-38
-0.89506578 -1.8464313 2.2053719e-06 1.4290323e-38
-0.88550824 -1.847048 2.1934509e-06 1.4290323e-38
-0.87490356 -1.8458145 2.2172928e-06 1.4290323e-38
-0.86534607 -1.8464313 2.2053719e-06 1.4290323e-38
-0.85578167 -1.847048 2.1934509e-06 1.4290323e-38
-0.8451907 -1.8458145 2.2172928e-06 1.4290323e-38
-0.83454847 -1.847048 2.1934509e-06 1.4290323e-38
-0.8250097 -1.8464313 2.2053719e-06 1.4290323e-38
-0.81547785 -1.8458145 2.2172928e-06 1.4290323e-38
-0.80482185 -1.847048 2.2888185e-06 1.4290323e-38
-0.7942543 -1.8458147 2.3603438e-06 1.4290323e-38
-0.78467816 -1.8464313 2.3245811e-06 1.4290323e-38
-0.77509528 -1.8470482 2.2888185e-06 1.4290323e-38
-0.76454139 -1.8458147 2.3603438e-06 1.4290323e-38
-0.75495845 -1.8464314 2.3245811e-06 1.4290323e-38
-0.74536872 -1.8470482 2.2888185e-06 1.4290323e-38
-0.73482853 -1.8458145 2.3603438e-06 1.4290323e-38
-0.72523874 -1.8464314 2.3245811e-06 1.4290323e-38
-0.71564215 -1.847048 2.2888185e-06 1.4290323e-38
-0.70511562 -1.8458145 2.3603438e-06 1.4290323e-38
-0.69551897 -1.8464314 2.4437904e-06 1.4290323e-38
-0.68591559 -1.8470482 2.4318695e-06 1.4290323e-38
-0.67540276 -1.8458145 2.4557114e-06 1.4290323e-38
-0.66468227 -1.8470482 2.4318695e-06 1.4290323e-38
-0.65417922 -1.8458147 2.4557114e-06 1.4290323e-38
-0.64457089 -1.8464313 2.4437904e-06 1.4290323e-38
-0.63495576 -1.8470482 2.4318695e-06 1.4290323e-38
-0.62446636 -1.8458145 2.4557114e-06 1.4290323e-38
-0.61485112 -1.8464313 2.4437904e-06 1.4290323e-38
-0.6052292 -1.847048 2.4318695e-06 1.4290323e-38
-0.59475344 -1.8458145 2.4557114e-06 1.4290323e-38
-0.58513141 -1.8464314 2.4437904e-06 1.4290323e-38
-0.57550263 -1.8470482 2.4318695e-06 1.4290323e-38
-0.56504059 -1.8458145 2.4557114e-06 1.4290323e-38
-0.55528921 -1.8460493 0.00034692883 8.4895888e-39
-0.5453124 -1.8455786 0.0013268709 8.397033e-39
-0.53450745 -1.8431696 0.0023881197 8.3048374e-39
-0.52520537 -1.8458498 0.0033017993 8.3044759e-39
-0.51643449 -1.844893 0.0041632056 8.2122802e-39
-0.50470209 -1.8451564 0.0053156614 8.1200832e-39
-0.49516362 -1.8456581 0.006252557 8.0275274e-39
-0.48522282 -1.8451881 0.007228923 7.9353318e-39
-0.4754892 -1.8435073 0.0081849396 7.8431348e-39
-0.46516097 -1.8454592 0.0091993809 7.7509391e-39
-0.45861453 -1.8447425 0.0098422766 7.750579e-39
0.46466962 -1.8454108 0.0092427731 8.397033e-39
0.47502336 -1.8434623 0.0082257986 8.3973932e-39
0.48493305 -1.8439283 0.0072524785 8.4892286e-39
0.49562454 -1.846331 0.0062022447 8.4895888e-39
0.5046379 -1.8456697 0.0053168931 8.5817844e-39
0.51371878 -1.8446021 0.0044251084 8.5817858e-39
0.52465057 -1.845795 0.0033512115 8.6739814e-39
0.53498691 -1.8438437 0.0023359656 8.6743416e-39
0.54493237 -1.8443104 0.0013590336 8.7661771e-39
0.55569869 -1.8466953 0.00032026769 9.8710799e-39
0.56544626 -1.846431 2.682209e-06 1.4290323e-38
0.5750829 -1.8458143 2.670288e-06 1.4290323e-38
0.58552933 -1.8470478 2.69413e-06 1.4290323e-38
0.59516597 -1.8464309 2.682209e-06 1.4290323e-38
0.60479581 -1.8458143 2.670288e-06 1.4290323e-38
0.61525583 -1.8470478 2.69413e-06 1.4290323e-38
0.62488568 -1.846431 2.682209e-06 1.4290323e-38
0.63450867 -1.8458141 2.670288e-06 1.4290323e-38
0.64498246 -1.8470476 2.69413e-06 1.4290323e-38
0.65460539 -1.846431 2.682209e-06 1.4290323e-38
0.66422158 -1.8458143 2.670288e-06 1.4290323e-38
0.67470896 -1.8470476 2.69413e-06 1.4290323e-38
0.68544495 -1.8458141 2.670288e-06 1.4290323e-38
0.69594228 -1.8470476 2.69413e-06 1.4290323e-38
0.70555347 -1.8464309 2.682209e-06 1.4290323e-38
0.71515787 -1.8458141 2.670288e-06 1.4290323e-38
0.72566879 -1.8470476 2.69413e-06 1.4290323e-38
0.73527318 -1.846431 2.682209e-06 1.4290323e-38
0.74487078 -1.8458143 2.670288e-06 1.4290323e-38
0.75539529 -1.8470476 2.69413e-06 1.4290323e-38
0.76499295 -1.846431 2.682209e-06 1.4290323e-38
0.7745837 -1.8458141 2.670288e-06 1.4290323e-38
0.78512192 -1.8470478 2.69413e-06 1.4290323e-38
0.79471266 -1.846431 2.682209e-06 1.4290323e-38
0.80429649 -1.8458143 2.670288e-06 1.4290323e-38
0.81484842 -1.8470476 2.69413e-06 1.4290323e-38
0.82552004 -1.8458141 2.670288e-06 1.4290323e-38
0.83504409 -1.8464309 2.682209e-06 1.4290323e-38
0.84457505 -1.8470478 2.69413e-06 1.4290323e-38
0.85523289 -1.8458141 2.670288e-06 1.4290323e-38
0.86580831 -1.8470476 2.69413e-06 1.4290323e-38
0.87538046 -1.8464309 2.682209e-06 1.4290323e-38
0.88494575 -1.8458141 2.670288e-06 1.4290323e-38
0.89553481 -1.8470476 2.69413e-06 1.4290323e-38
0.90510017 -1.846431 2.682209e-06 1.4290323e-38
0.91465873 -1.8458141 2.670288e-06 1.4290323e-38
0.92526132 -1.8470476 2.69413e-06 1.4290323e-38
0.93481988 -1.8464309 2.682209e-06 1.4290323e-38
0.94437152 -1.8458143 2.670288e-06 1.4290323e-38
0.95498788 -1.8470476 2.69413e-06 1.4290323e-38
0.96559507 -1.8458143 2.670288e-06 1.4290323e-38
0.9751513 -1.846431 2.682209e-06 1.4290323e-38
0.98471439 -1.8470476 2.69413e-06 1.4290323e-38
0.99530792 -1.8458143 2.670288e-06 1.4290323e-38
1.004871 -1.846431 2.682209e-06 1.4290323e-38
1.014441 -1.8470476 2.69413e-06 1.4290323e-38
1.0250207 -1.8458143 2.670288e-06 1.4290323e-38
1.0345907 -1.846431 2.682209e-06 1.4290323e-38
1.0441675 -1.8470478 2.69413e-06 1.4290323e-38
1.0547336 -1.8458143 2.670288e-06 1.4290323e-38
1.0654008 -1.8470476 2.69413e-06 1.4290323e-38
1.0749271 -1.846431 2.682209e-06 1.4290323e-38
1.0844465 -1.8458143 2.670288e-06 1.4290323e-38
1.0951273 -1.8470478 2.69413e-06 1.4290323e-38
1.10567 -1.8458143 2.670288e-06 1.4290323e-38
1.1152585 -1.846431 2.682209e-06 1.4290323e-38
1.1248538 -1.8470476 2.69413e-06 1.4290323e-38
1.1353829 -1.8458143 2.670288e-06 1.4290323e-38
1.1449782 -1.846431 2.682209e-06 1.4290323e-38
1.1545804 -1.8470476 2.69413e-06 1.4290323e-38
1.1650957 -1.8458141 2.670288e-06 1.4290323e-38
1.174698 -1.846431 2.682209e-06 1.4290323e-38
1.1843069 -1.8470476 2.69413e-06 1.4290323e-38
1.1948086 -1.8458143 2.670288e-06 1.4290323e-38
1.2044176 -1.846431 2.682209e-06 1.4290323e-38
1.2140335 -1.8470476 2.69413e-06 1.4290323e-38
1.2245215 -1.8458141 2.670288e-06 1.4290323e-38
1.2352668 -1.8470478 2.69413e-06 1.4290323e-38
1.2457449 -1.8458141 2.670288e-06 1.4290323e-38
1.2553657 -1.846431 2.682209e-06 1.4290323e-38
1.2649933 -1.8470478 2.69413e-06 1.4290323e-38
1.2754579 -1.8458143 2.670288e-06 1.4290323e-38
1.2850854 -1.846431 2.682209e-06 1.4290323e-38
1.2947199 -1.8470476 2.69413e-06 1.4290323e-38
1.3051708 -1.8458141 2.670288e-06 1.4290323e-38
1.3148052 -1.846431 2.682209e-06 1.4290323e-38
1.3244464 -1.8470476 2.69413e-06 1.4290323e-38
1.3348837 -1.8458143 2.670288e-06 1.4290323e-38
1.3445249 -1.846431 2.682209e-06 1.4290323e-38
1.3551391 -1.8464311 2.682209e-06 1.4290323e-38
1.3657532 -1.846431 2.682209e-06 1.4290323e-38
1.3742446 -1.846431 2.682209e-06 1.4290323e-38
1.3800527 -1.8495146 2.7418137e-06 1.4290323e-38
-1.3252084 -1.8347647 2.0265579e-06 1.4290323e-38
-1.315601 -1.8341537 2.0265579e-06 1.4290323e-38
-1.3050355 -1.8341538 2.0265579e-06 1.4290323e-38
-1.29447 -1.8341537 2.0265579e-06 1.4290323e-38
-1.2848742 -1.8335425 2.0980835e-06 1.4290323e-38
-1.274482 -1.8347647 2.0742416e-06 1.4290323e-38
-1.2648861 -1.8341535 2.0861626e-06 1.4290323e-38
-1.2552973 -1.8335425 2.0980835e-06 1.4290323e-38
-1.2448915 -1.8347647 2.0742416e-06 1.4290323e-38
-1.2353026 -1.8341535 2.0861626e-06 1.4290323e-38
-1.2257203 -1.8335425 2.0980835e-06 1.4290323e-38
-1.2153012 -1.8347645 2.0742416e-06 1.4290323e-38
-1.204594 -1.8335425 2.0980835e-06 1.4290323e-38
-1.194165 -1.8347645 2.0742416e-06 1.4290323e-38
-1.1845876 -1.8341537 2.1457672e-06 1.4290323e-38
-1.1750171 -1.8335426 2.1934509e-06 1.4290323e-38
-1.1645745 -1.8347647 2.2172928e-06 1.4290323e-38
-1.155004 -1.8341535 2.2053719e-06 1.4290323e-38
-1.1454402 -1.8335426 2.1934509e-06 1.4290323e-38
-1.1349843 -1.8347647 2.2172928e-06 1.4290323e-38
-1.1254203 -1.8341537 2.2053719e-06 1.4290323e-38
-1.1158634 -1.8335426 2.1934509e-06 1.4290323e-38
-1.1053938 -1.8347647 2.2172928e-06 1.4290323e-38
-1.0947369 -1.8335425 2.1934509e-06 1.4290323e-38
-1.0842577 -1.8347647 2.2172928e-06 1.4290323e-38
-1.0747055 -1.8341537 2.2053719e-06 1.4290323e-38
-1.06516 -1.8335425 2.1934509e-06 1.4290323e-38
-1.0546672 -1.8347647 2.2172928e-06 1.4290323e-38
-1.0451219 -1.8341537 2.2053719e-06 1.4290323e-38
-1.0355833 -1.8335426 2.1934509e-06 1.4290323e-38
-1.0250769 -1.8347647 2.2411346e-06 1.4290323e-38
-1.0144569 -1.8335422 2.2649765e-06 1.4290323e-38
-1.0049751 -1.8341534 2.2649765e-06 1.4290323e-38
-0.99548638 -1.8347647 2.2649765e-06 1.4290323e-38
-0.98487997 -1.8335425 2.2649765e-06 1.4290323e-38
-0.97435033 -1.8347645 2.2649765e-06 1.4290323e-38
-0.96482331 -1.8341534 2.2649765e-06 1.4290323e-38
-0.95530307 -1.8335422 2.2649765e-06 1.4290323e-38
-0.94475996 -1.8347645 2.2649765e-06 1.4290323e-38
-0.93523967 -1.8341534 2.2649765e-06 1.4290323e-38
-0.92572623 -1.8335422 2.2649765e-06 1.4290323e-38
-0.91516954 -1.8347645 2.3126602e-06 1.4290323e-38
-0.90459979 -1.8335422 2.3126602e-06 1.4290323e-38
-0.89509284 -1.8341533 2.3245811e-06 1.4290323e-38
-0.88557911 -1.8347645 2.3365021e-06 1.4290323e-38
-0.87502301 -1.8335422 2.3126602e-06 1.4290323e-38
-0.864443 -1.8347645 2.3365021e-06 1.4290323e-38
-0.85494119 -1.8341534 2.3245811e-06 1.4290323e-38
-0.84544599 -1.8335422 2.3126602e-06 1.4290323e-38
-0.8348527 -1.8347645 2.3365021e-06 1.4290323e-38
-0.82431972 -1.8335422 2.3126602e-06 1.4290323e-38
-0.81479436 -1.8341533 2.3245811e-06 1.4290323e-38
-0.80526221 -1.8347645 2.3365021e-06 1.4290323e-38
-0.79474294 -1.8335422 2.3126602e-06 1.4290323e-38
-0.78521073 -1.8341534 2.3245811e-06 1.4290323e-38
-0.77567184 -1.8347645 2.3365021e-06 1.4290323e-38
-0.76516598 -1.8335422 2.3126602e-06 1.4290323e-38
-0.75453579 -1.8347645 2.3365021e-06 1.4290323e-38
-0.74505913 -1.8341534 2.3245811e-06 1.4290323e-38
-0.73558915 -1.8335422 2.3126602e-06 1.4290323e-38
-0.72494537 -1.8347645 2.3365021e-06 1.4290323e-38
-0.71446288 -1.8335422 2.3126602e-06 1.4290323e-38
-0.70491225 -1.8341534 2.3245811e-06 1.4290323e-38
-0.69535506 -1.8347645 2.3365021e-06 1.4290323e-38
-0.68488592 -1.8335422 2.3126602e-06 1.4290323e-38
-0.67532867 -1.8341533 2.3245811e-06 1.4290323e-38
-0.66576457 -1.8347645 2.3365021e-06 1.4290323e-38
-0.65530908 -1.8335422 2.3126602e-06 1.4290323e-38
-0.64462858 -1.8347645 2.3365021e-06 1.4290323e-38
-0.63418275 -1.8335422 2.3126602e-06 1.4290323e-38
-0.62461382 -1.8341533 2.3245811e-06 1.4290323e-38
-0.6150381 -1.8347645 2.3365021e-06 1.4290323e-38
-0.60460585 -1.8335422 2.3126602e-06 1.4290323e-38
-0.59503019 -1.8341534 2.3245811e-06 1.4290323e-38
-0.58544767 -1.8347645 2.3365021e-06 1.4290323e-38
-0.57502902 -1.8335422 2.3126602e-06 1.4290323e-38
-0.56544656 -1.8341534 2.3245811e-06 1.4290323e-38
-0.55574405 -1.8344129 0.00032134057 9.5944902e-39
-0.54620868 -1.8338089 0.0012387832 8.3973918e-39
-0.53572035 -1.8347082 0.00226897 8.3048374e-39
-0.52443904 -1.8359363 0.0033769608 8.2126404e-39
-0.51451945 -1.8354723 0.0043513179 8.1204433e-39
-0.50579011 -1.8345249 0.0052086413 8.1200832e-39
-0.49588457 -1.834061 0.006181574 8.0275274e-39
-0.48460624 -1.8352809 0.00728935 7.9353318e-39
-0.47411242 -1.8361845 0.0083201723 7.8431348e-39
-0.46461853 -1.8355602 0.009252524 7.750579e-39
-0.45747453 -1.8384602 0.0099543333 7.750579e-39
0.45876345 -1.8355411 0.0098229647 8.3970316e-39
0.46526951 -1.8362498 0.0091840029 8.397033e-39
0.47558725 -1.8343053 0.0081706047 8.3973918e-39
0.48644236 -1.8354857 0.0071043372 8.4895888e-39
0.49548817 -1.8344307 0.0062158504 8.4895888e-39
0.50446212 -1.8337739 0.0053343773 8.5817844e-39
0.51513875 -1.8361568 0.0042856694 8.5817858e-39
0.52504629 -1.8366202 0.0033125579 8.6739814e-39
0.53534663 -1.8346729 0.0023007791 8.6743416e-39
0.54625583 -1.8358551 0.0012292862 8.7665372e-39
0.55436432 -1.8336793 0.00043281913 8.7665372e-39
0.56507099 -1.8341531 2.682209e-06 1.4290323e-38
0.57563663 -1.8341531 2.682209e-06 1.4290323e-38
0.58522677 -1.8335419 2.670288e-06 1.4290323e-38
0.59563005 -1.8347641 2.69413e-06 1.4290323e-38
0.6052202 -1.8341531 2.682209e-06 1.4290323e-38
0.61480367 -1.8335419 2.670288e-06 1.4290323e-38
0.62522042 -1.8347641 2.69413e-06 1.4290323e-38
0.63480383 -1.8341531 2.682209e-06 1.4290323e-38
0.64438051 -1.8335419 2.670288e-06 1.4290323e-38
0.65481079 -1.8347641 2.69413e-06 1.4290323e-38
0.6655069 -1.8335419 2.670288e-06 1.4290323e-38
0.67594683 -1.8347641 2.69413e-06 1.4290323e-38
0.68551862 -1.8341529 2.682209e-06 1.4290323e-38
0.69508374 -1.8335419 2.670288e-06 1.4290323e-38
0.70553726 -1.8347641 2.69413e-06 1.4290323e-38
0.71510231 -1.8341529 2.682209e-06 1.4290323e-38
0.72466052 -1.8335419 2.670288e-06 1.4290323e-38
0.73512769 -1.8347641 2.69413e-06 1.4290323e-38
0.74468589 -1.8341531 2.682209e-06 1.4290323e-38
0.75423747 -1.8335419 2.670288e-06 1.4290323e-38
0.76471806 -1.8347641 2.69413e-06 1.4290323e-38
0.7753638 -1.8335419 2.670288e-06 1.4290323e-38
0.7858541 -1.8347641 2.69413e-06 1.4290323e-38
0.79540074 -1.8341531 2.682209e-06 1.4290323e-38
0.80494058 -1.8335419 2.670288e-06 1.4290323e-38
0.81544459 -1.8347641 2.69413e-06 1.4290323e-38
0.82498437 -1.8341531 2.682209e-06 1.4290323e-38
0.83451748 -1.8335419 2.670288e-06 1.4290323e-38
0.8450349 -1.8347641 2.69413e-06 1.4290323e-38
0.85564387 -1.8335419 2.670288e-06 1.4290323e-38
0.8651312 -1.8341531 2.682209e-06 1.4290323e-38
0.87462533 -1.8347641 2.69413e-06 1.4290323e-38
0.88522065 -1.8335419 2.670288e-06 1.4290323e-38
0.89576131 -1.8347641 2.69413e-06 1.4290323e-38
0.90528286 -1.8341529 2.682209e-06 1.4290323e-38
0.91479748 -1.8335419 2.670288e-06 1.4290323e-38
0.92535174 -1.8347641 2.69413e-06 1.4290323e-38
0.93486643 -1.8341529 2.682209e-06 1.4290323e-38
0.94437438 -1.8335419 2.670288e-06 1.4290323e-38
0.95494211 -1.8347641 2.69413e-06 1.4290323e-38
0.96550071 -1.8335419 2.670288e-06 1.4290323e-38
0.9750132 -1.8341529 2.682209e-06 1.4290323e-38
0.98453254 -1.8347641 2.69413e-06 1.4290323e-38
0.99507761 -1.8335419 2.670288e-06 1.4290323e-38
1.0056684 -1.8347641 2.69413e-06 1.4290323e-38
1.0151649 -1.8341529 2.682209e-06 1.4290323e-38
1.0246545 -1.8335419 2.670288e-06 1.4290323e-38
1.0352589 -1.8347641 2.69413e-06 1.4290323e-38
1.0457808 -1.8335419 2.670288e-06 1.4290323e-38
1.0553116 -1.8341531 2.682209e-06 1.4290323e-38
1.0648493 -1.8347641 2.69413e-06 1.4290323e-38
1.0753576 -1.8335419 2.670288e-06 1.4290323e-38
1.0848953 -1.8341529 2.682209e-06 1.4290323e-38
1.0944397 -1.8347641 2.69413e-06 1.4290323e-38
1.1049345 -1.8335419 2.670288e-06 1.4290323e-38
1.1155757 -1.8347641 2.69413e-06 1.4290323e-38
1.125047 -1.8341529 2.682209e-06 1.4290323e-38
1.1345112 -1.8335419 2.7656556e-06 1.4290323e-38
1.1451662 -1.8347641 2.7894973e-06 1.4290323e-38
1.1556375 -1.8335419 2.8133393e-06 1.4290323e-38
1.1651937 -1.8341531 2.8014183e-06 1.4290323e-38
1.1747564 -1.8347641 2.7894973e-06 1.4290323e-38
1.1852144 -1.8335419 2.8133393e-06 1.4290323e-38
1.1947773 -1.8341529 2.8014183e-06 1.4290323e-38
1.2043469 -1.8347641 2.7894973e-06 1.4290323e-38
1.2147913 -1.8335419 2.8133393e-06 1.4290323e-38
1.2254829 -1.8347641 2.7894973e-06 1.4290323e-38
1.2359176 -1.8335419 2.8133393e-06 1.4290323e-38
1.245492 -1.8341529 2.8014183e-06 1.4290323e-38
1.2550733 -1.8347641 2.7894973e-06 1.4290323e-38
1.2654946 -1.8335419 2.8133393e-06 1.4290323e-38
1.2750757 -1.8341529 2.8014183e-06 1.4290323e-38
1.2846637 -1.8347641 2.7894973e-06 1.4290323e-38
1.2950714 -1.8335419 2.8133393e-06 1.4290323e-38
1.3046594 -1.8341531 2.8014183e-06 1.4290323e-38
1.3142542 -1.8347641 2.7894973e-06 1.4290323e-38
1.3246481 -1.8335419 2.8133393e-06 1.4290323e-38
1.3353902 -1.8347641 2.7894973e-06 1.4290323e-38
1.3457745 -1.8335419 2.8133393e-06 1.4290323e-38
1.3553741 -1.8341531 2.8014183e-06 1.4290323e-38
1.3649805 -1.8347641 2.7894973e-06 1.4290323e-38
1.3722816 -1.8341529 2.8014183e-06 1.4290323e-38
-1.3236592 -1.8250153 2.0265579e-06 1.4290323e-38
-1.3152356 -1.8250154 2.0265579e-06 1.4290323e-38
-1.3047063 -1.8250153 2.0265579e-06 1.4290323e-38
-1.2962828 -1.8250153 2.0265579e-06 1.4290323e-38
-1.2857533 -1.8250154 2.0265579e-06 1.4290323e-38
-1.275224 -1.8250153 2.0265579e-06 1.4290323e-38
-1.2646946 -1.8250154 2.0265579e-06 1.4290323e-38
-1.2541649 -1.8250153 2.0265579e-06 1.4290323e-38
-1.2457416 -1.8250153 2.0265579e-06 1.4290323e-38
-1.235212 -1.8250154 2.0265579e-06 1.4290323e-38
-1.2246827 -1.8250153 2.0265579e-06 1.4290323e-38
-1.2162592 -1.8250153 2.0265579e-06 1.4290323e-38
-1.2057297 -1.8250154 2.0265579e-06 1.4290323e-38
-1.1952003 -1.8250153 2.0265579e-06 1.4290323e-38
-1.1846709 -1.8250154 2.0265579e-06 1.4290323e-38
-1.1741414 -1.8250153 2.0265579e-06 1.4290323e-38
-1.165718 -1.8250153 2.0265579e-06 1.4290323e-38
-1.1551886 -1.8250154 2.0265579e-06 1.4290323e-38
-1.144659 -1.8250153 2.0265579e-06 1.4290323e-38
-1.1362356 -1.8250153 2.0265579e-06 1.4290323e-38
-1.1257061 -1.8250151 2.2649765e-06 1.4290323e-38
-1.1151767 -1.8250151 2.2649765e-06 1.4290323e-38
-1.1046473 -1.8250151 2.2649765e-06 1.4290323e-38
-1.0941179 -1.8250151 2.2649765e-06 1.4290323e-38
-1.0856943 -1.8250151 2.2649765e-06 1.4290323e-38
-1.0751649 -1.8250151 2.2649765e-06 1.4290323e-38
-1.0646355 -1.8250151 2.2649765e-06 1.4290323e-38
-1.0562119 -1.8250151 2.2649765e-06 1.4290323e-38
-1.0456825 -1.8250151 2.2649765e-06 1.4290323e-38
-1.0351532 -1.8250151 2.2649765e-06 1.4290323e-38
-1.0246238 -1.8250151 2.2649765e-06 1.4290323e-38
